# .PCD v0.7 - Point Cloud Data file format
VERSION 0.7
FIELDS x y z intensity
SIZE 4 4 4 4
TYPE F F F F
COUNT 1 1 1 1
WIDTH 266
HEIGHT 1
VIEWPOINT 0 0 0 1 0 0 0
POINTS 266
DATA ascii
1.6262743 0.34642977 -0.20325486 1087
1.6301678 0.36029267 -0.20530927 1189
1.6419264 0.33784959 -0.20345072 1067
1.6271139 0.34589529 -0.19572923 1455
1.6293169 0.35919008 -0.19687758 1498
1.6254525 0.37056825 -0.19486313 1196
1.6376076 0.33577904 -0.19319534 1194
1.6373371 0.34830046 -0.19305606 1586
1.6335447 0.35974142 -0.19110319 1627
1.6279609 0.37056828 -0.18822791 1292
1.637534 0.33500263 -0.18515995 1180
1.6321155 0.34589532 -0.18240406 1596
1.6309028 0.3580876 -0.18178721 1647
1.6338639 0.37170434 -0.1832933 1327
1.6340915 0.29602346 -0.175494 1043
1.638483 0.3095971 -0.17769998 1053
1.6365429 0.33396733 -0.17672537 1134
1.6380075 0.3469643 -0.17746107 1596
1.6359243 0.35891452 -0.17641462 1659
1.6388865 0.37255642 -0.17790261 1362
1.6461426 0.23710212 -0.17355798 1028
1.6405401 0.24803893 -0.17077892 1191
1.6401163 0.26013407 -0.1705687 1281
1.6395948 0.27224168 -0.17031004 1372
1.6442124 0.28571048 -0.17260049 1437
1.6365149 0.29602346 -0.16878225 1485
1.6409175 0.30959713 -0.17096612 1408
1.6389725 0.33396733 -0.17000128 1096
1.6456203 0.34856778 -0.17329893 1607
1.6366301 0.35836327 -0.16883934 1687
1.6404629 0.37227237 -0.1707406 1417
1.6506473 0.046156548 -0.16784211 1215
1.6491511 0.057857487 -0.16710922 1411
1.6529388 0.069953278 -0.16896458 1373
1.6423755 0.23576647 -0.16379036 1352
1.6411701 0.24764022 -0.16319995 1517
1.6407485 0.25971827 -0.16299343 1573
1.6384754 0.27137595 -0.16188 1624
1.6404862 0.28413585 -0.16286494 1663
1.6450077 0.29765758 -0.16507965 1688
1.6433085 0.30959713 -0.16424733 1594
1.6474308 0.3357791 -0.1662665 1058
1.6497537 0.34910223 -0.16740429 1644
1.6424634 0.35946584 -0.16383339 1737
1.63252 0.36886421 -0.15896291 1491
1.6493804 0.045947209 -0.15946743 1397
1.6514766 0.057857502 -0.16048142 1607
1.6588656 0.070232332 -0.16405582 1541
1.6535878 0.081658185 -0.16150272 1018
1.6446848 0.23576649 -0.15719587 1479
1.6461231 0.24823834 -0.15789159 1644
1.643054 0.25971827 -0.15640692 1675
1.6442909 0.27224171 -0.15700531 1712
1.6471766 0.28526062 -0.15840127 1730
1.6534506 0.29929173 -0.16143624 1743
1.6491138 0.31056485 -0.15933836 1649
1.6499218 0.32328087 -0.1597292 1015
1.6488827 0.33552033 -0.15922657 1011
1.6442735 0.34669712 -0.15699688 1664
1.6482342 0.3605684 -0.15891284 1772
1.642574 0.37142038 -0.15617472 1542
1.6526212 0.045999568 -0.15311897 1417
1.6646293 0.058590118 -0.15885372 1639
1.6594274 0.07009282 -0.15636946 1583
1.6532387 0.081422821 -0.15341386 1094
1.6487846 0.23614812 -0.15128671 1470
1.6475703 0.24803898 -0.15070675 1640
1.6400821 0.25847083 -0.14713067 1667
1.6448559 0.27180883 -0.14941049 1697
1.6407182 0.28301111 -0.14743446 1698
1.644393 0.29625693 -0.1491894 1689
1.6488259 0.30983907 -0.15130641 1583
1.6478943 0.32202893 -0.1508615 1036
1.6483397 0.34723163 -0.15107422 1638
1.6453664 0.35891458 -0.14965425 1770
1.6397055 0.36971629 -0.1469508 1563
1.6539885 0.045947239 -0.14600715 1384
1.6560946 0.057857532 -0.14700021 1635
1.654496 0.069534779 -0.14624643 1602
1.6582159 0.081658214 -0.14800043 1182
1.6554856 0.23710218 -0.14671302 1397
1.6533744 0.24883647 -0.14571755 1554
1.6423234 0.25847083 -0.14050677 1545
1.655056 0.27375683 -0.14651042 1536
1.645605 0.28368598 -0.1420541 1498
1.6554394 0.29859143 -0.14669119 1444
1.6519654 0.31008103 -0.14505313 1326
1.6532153 0.34803337 -0.14564244 1583
1.6476201 0.35891458 -0.14300424 1725
1.6462822 0.3711364 -0.14237338 1548
1.6535439 0.045790251 -0.13794173 1345
1.6592761 0.057918601 -0.14060944 1630
1.648629 0.068906963 -0.1356543 1620
1.6686319 0.08236438 -0.14496362 1249
1.6568707 0.2369114 -0.13948993 1183
1.6529794 0.24823838 -0.13767891 1308
1.6534357 0.26054999 -0.13789125 1234
1.6520193 0.2724582 -0.13723207 1147
1.6505071 0.28436086 -0.13652827 1028
1.6607268 0.34963679 -0.1412845 1529
1.6481338 0.35836336 -0.13542372 1685
1.6494051 0.37142044 -0.13601537 1532
1.6693546 0.04657533 -0.1374955 1304
1.6542319 0.057430208 -0.13054822 1623
1.6680397 0.070232391 -0.13689144 1632
1.6627121 0.081658244 -0.13444398 1302
1.6585639 0.34830061 -0.13253817 1483
1.657308 0.36056846 -0.13196124 1641
1.6515944 0.37142044 -0.12933642 1489
1.6697407 0.046470661 -0.12986557 1263
1.672766 0.058529135 -0.13123722 1576
1.6647906 0.069813848 -0.12762125 1573
1.6585464 0.081109032 -0.12479017 1269
1.657234 0.34723169 -0.12419499 1342
1.6542331 0.35891464 -0.12283438 1467
1.6546323 0.37170449 -0.12301542 1312
1.665531 0.046104319 -0.12019157 1076
1.6649218 0.057857592 -0.11991898 1370
1.6687719 0.069953382 -0.12164153 1342
1.6734325 0.082207501 -0.12372675 1032
1.6605777 0.17534146 -0.10257653 1052
1.6661764 0.188254 -0.10501482 1069
1.6706961 0.14075798 -0.099087603 1151
1.666591 0.15210509 -0.097324632 1298
1.6642181 0.16366518 -0.096305519 1380
1.660845 0.17504583 -0.094856918 1456
1.6664586 0.18794115 -0.097267717 1393
1.6735839 0.14087987 -0.092802092 1439
1.6676435 0.15197457 -0.090285078 1571
1.6771201 0.16533528 -0.094300404 1611
1.666441 0.1756371 -0.08977551 1649
1.669333 0.1880976 -0.091000929 1573
1.66734 0.13978305 -0.082479842 1544
1.6641405 0.15119141 -0.081143007 1665
1.6690751 0.16380438 -0.083204798 1674
1.6620364 0.17460243 -0.080263846 1686
1.6704112 0.18794118 -0.083763026 1611
1.6677433 0.19947277 -0.082648352 1061
1.6711224 0.14002681 -0.076388322 1525
1.6660808 0.15119143 -0.074311398 1652
1.6774349 0.16477862 -0.078988791 1631
1.6639724 0.17460245 -0.073442779 1617
1.6723646 0.18794119 -0.076900005 1520
1.6678674 0.19914268 -0.075047344 1052
1.6702799 0.13966119 -0.068402432 1408
1.6780912 0.15262724 -0.071574725 1496
1.6784467 0.16463946 -0.071719058 1436
1.6713719 0.17548934 -0.068845913 1358
1.6797738 0.18887982 -0.072258048 1240
1.6804674 0.14075805 -0.064793937 1101
1.679081 0.15249673 -0.064239025 1093
1.6867433 0.15080003 0.02287598 1088
1.6843038 0.16227366 0.023686964 1318
1.6780164 0.17312452 0.025777075 1311
1.6829756 0.19765742 0.024128461 1148
1.6866952 0.21027568 0.022891957 1334
1.6791046 0.22079234 0.025415365 1240
1.690044 0.15106112 0.029186597 1362
1.6885396 0.16269119 0.029678401 1582
1.6803584 0.17327236 0.032352861 1530
1.6899356 0.18668991 0.029222088 1078
1.676886 0.19633706 0.033488002 1459
1.6890473 0.21044935 0.029512441 1607
1.6823775 0.22115685 0.031692855 1469
1.6791598 0.14936426 0.040082417 1445
1.6833241 0.16171698 0.038744099 1667
1.6798458 0.17297673 0.039861962 1602
1.6809782 0.18496911 0.039498039 1170
1.677312 0.196172 0.040676266 1563
1.6744933 0.20749731 0.041582145 1698
1.6762626 0.21969897 0.041013531 1554
1.6842977 0.14988637 0.045912951 1413
1.6818541 0.16129948 0.046684541 1663
1.6708289 0.17135082 0.050165989 1628
1.6861049 0.18559487 0.045342326 1210
1.6880704 0.19782253 0.04472167 1549
1.6786592 0.20801827 0.047693439 1699
1.6841775 0.22097464 0.045950942 1582
1.6855741 0.14988638 0.05269371 1375
1.6850183 0.16157784 0.052866213 1657
1.6805856 0.17268114 0.054242097 1646
1.6826675 0.18481271 0.053595908 1272
1.6761651 0.19551182 0.055614214 1518
1.6808676 0.20819195 0.054154605 1697
1.674185 0.2187878 0.05622885 1605
1.6805472 0.23195067 0.054254077 1002
1.6858953 0.14975588 0.059915565 1331
1.6843926 0.1612995 0.060373794 1643
1.6827936 0.17282897 0.060861371 1650
1.6792088 0.18403053 0.061954442 1327
1.6830807 0.19650213 0.060773853 1475
1.6849558 0.20871291 0.060202062 1695
1.6763774 0.21897003 0.062817797 1636
1.6855648 0.23271394 0.060016423 1115
1.6890301 0.15001695 0.066291422 1282
1.6856256 0.16129951 0.067310922 1633
1.6859189 0.1731246 0.06722305 1654
1.6908418 0.18575135 0.065748893 1363
1.6937599 0.19815265 0.064875066 1433
1.6861897 0.20871292 0.06714201 1691
1.680424 0.21951677 0.06886857 1657
1.6764553 0.23061503 0.070057005 1217
1.6940378 0.15053906 0.072131865 1234
1.6868235 0.16129953 0.074252896 1613
1.6833218 0.17253336 0.075282402 1648
1.6911 0.18559493 0.072995596 1403
1.6892927 0.19716237 0.073526978 1396
1.6817194 0.20767103 0.075753532 1683
1.6778409 0.21878785 0.076893829 1676
1.6823485 0.23156908 0.075568587 1292
1.6847303 0.14910327 0.082121432 1142
1.6832265 0.16060366 0.082555436 1587
1.6911286 0.17356806 0.080274977 1649
1.6818278 0.18387413 0.082959078 1445
1.6885611 0.19683227 0.081015959 1341
1.6885495 0.20871295 0.081019312 1668
1.6808774 0.21915233 0.083233364 1677
1.6882179 0.23252314 0.08111503 1347
1.6858549 0.14910328 0.089064047 1069
1.6862545 0.16088201 0.088950902 1559
1.6865529 0.1726812 0.088866435 1651
1.6896005 0.1849692 0.088003464 1476
1.6820993 0.19551189 0.09012752 1270
1.6868368 0.20819201 0.088786036 1649
1.687673 0.22024576 0.088549308 1682
1.6865141 0.23195073 0.088877454 1399
1.6864079 0.16074285 0.096277252 1539
1.6819431 0.17179433 0.097517028 1641
1.6897612 0.18481278 0.095346153 1494
1.6965058 0.1978226 0.093473397 1187
1.6869963 0.20801836 0.096113913 1578
1.6812032 0.21878788 0.097722486 1607
1.6800553 0.23042426 0.098041251 1352
1.6855669 0.16046451 0.10385725 1494
1.683961 0.17194216 0.10429434 1601
1.6860707 0.18403061 0.10372011 1463
1.6909282 0.19666727 0.10239794 1008
1.6890174 0.20819204 0.10291807 1377
1.6822659 0.21878789 0.1047558 1367
1.6896408 0.23214158 0.1027484 1115
1.6932735 0.16143875 0.10897106 1353
1.6916571 0.17297685 0.10940243 1427
1.6899434 0.18449992 0.10985973 1286
1.7038698 0.16283052 0.11363532 1013
1.6947033 0.19551206 0.19447905 1313
1.6937381 0.20715027 0.19467555 1424
1.6994162 0.2200637 0.19351974 1268
1.7048488 0.18528225 0.19955838 1013
1.6962315 0.19567713 0.20126766 1498
1.6952637 0.20732394 0.20145963 1608
1.6874435 0.21769461 0.20301081 1435
1.707409 0.19749269 0.20617911 1544
1.7035235 0.20871316 0.20692968 1652
1.6918217 0.21842356 0.20919016 1474
1.6972497 0.19567715 0.21524552 1532
1.704023 0.20871317 0.21397233 1643
1.6923099 0.21842358 0.21617408 1488
1.6947944 0.19518201 0.22274911 1514
1.702547 0.20836586 0.22133185 1636
1.7043675 0.22061045 0.22099905 1491
1.7039535 0.19666748 0.22818176 1471
1.6952163 0.20697667 0.2297339 1582
1.6960826 0.21897031 0.22958001 1431
1.7024013 0.19633739 0.23553948 1314
1.7043346 0.20853953 0.23520604 1390
1.6974362 0.21915257 0.23639593 1225
